ply
format ascii 1.0
element vertex 300
property double x
property double y
property double z
end_header
0.031472368639318 -0.044038113242036 0.185071267428901
0.040579193707562 0.018197190414906 0.156055952735489
-0.037301318370649 -0.045756886249926 0.192960886675666
0.041337585613902 -0.042855453539936 0.169666720055523
0.013235924622541 0.002164984246428 0.158279096517584
-0.040245959500059 -0.040326997421913 0.181539721147742
-0.022150178113295 0.031814855385962 0.187901390459718
0.004688151920498 0.031754709207929 0.198891161607959
0.045750683543430 0.022243959236684 0.100052237535694
0.046488853519928 -0.035013455752203 0.186543859101302
-0.034238691832245 0.015960525290831 0.161256646948400
0.047059278176062 0.001859494251054 0.198995020570883
0.045716694824295 0.047297455476386 0.152768006933844
-0.001462435127716 0.014899149271236 0.147952338521022
0.030028046888880 0.030033057535240 0.180134760552195
-0.035811366137278 -0.004620229127308 0.122784293570604
-0.007823871737372 -0.006760849621654 0.149809429119639
0.041573552518907 0.032531379540205 0.190085248853200
0.029220732955955 -0.041653018514109 0.157466121913019
0.045949242639290 -0.036682899239284 0.184517818505404
0.015574069915659 -0.032661138688099 0.173864029199540
-0.046428832142581 -0.010906219767626 0.158598703582648
0.034912930586878 0.033137974283907 0.124673452598597
0.043399324775755 0.030336439160244 0.166641621731947
0.017873515485777 -0.043952882083011 0.108348281360262
0.025774013057833 -0.010074222938642 0.162595978517158
0.024313246812492 0.002687583050830 0.166094455794734
-0.010777298046583 -0.008320053206921 0.172975185531722
0.015547789017756 0.015685989097371 0.189075211632532
-0.032881331218844 0.012797335919010 0.198230322288361
0.020604608801961 -0.020801592003829 0.176902908533590
-0.046816715362258 -0.006834882975128 0.158144648787540
-0.022307701503911 -0.048451287436398 0.192831306231419
-0.045382860936885 0.048406372437915 0.158009036575844
-0.040286821876415 -0.033283159008534 0.101698293833726
0.032345782832729 -0.039378365507134 0.112085957109856
0.019482862297582 -0.012759025994446 0.186271071869967
-0.018290051993914 -0.030188159745703 0.148429651121210
0.045022204883836 -0.001031236198398 0.184485567457626
-0.046555391949709 -0.016050658660924 0.120940508402093
-0.006125564034360 0.045163046477773 0.155229134153878
-0.011844154290699 0.042033203983656 0.162988338506442
0.026551678814900 -0.044732300231921 0.103199101576257
0.029519990113706 0.023785809551700 0.161471341911714
-0.031312739544562 -0.023088057360144 0.136241146227305
-0.001023560421177 -0.007716438499119 0.104953257904206
-0.005441379928910 0.004787090121484 0.148956998917732
0.014631301011126 0.044273698427693 0.119251039606207
0.020936483085807 -0.008225589568334 0.112308374754595
0.025468668198236 0.048305246646986 0.120549417090768
-0.022397492300142 -0.019854505128793 0.114651491061489
0.017970267685367 0.020109875590093 0.118907217447261
0.015509800397384 0.016633885158443 0.104265241091114
-0.033738826480537 0.003912646504286 0.163519791685988
-0.038100231844162 0.019810552018031 0.128186685588043
-0.000163594801786 0.016652791340259 0.153859667804534
0.045974395851608 -0.032186754559966 0.169516303944433
-0.015961427333387 -0.037198560027983 0.149911601348259
0.008526775097978 0.049908039476136 0.153580105575111
-0.027618806050886 -0.032887893364357 0.144518316529604
0.025126705930565 -0.046739917946947 0.112393227759807
-0.024490488454073 0.006119979270966 0.149035729346802
0.000595705166514 0.038186650045181 0.185299815534082
0.019907672265669 0.016917530453439 0.187392740586173
0.039090325253580 -0.030956673282005 0.127029433229270
0.045929142520544 -0.013108345393611 0.120846135875131
0.004721552996380 -0.003927406273959 0.156497957073820
-0.036137555717132 0.048163795097075 0.164031182516276
-0.035070599444094 -0.034359504777344 0.141702895164289
-0.024249174587626 0.035552280584591 0.120597551553224
0.034071725598366 0.014476453687009 0.194793312129317
-0.024571782102847 -0.012372778972117 0.108207120709773
0.031428482606882 -0.030907630476370 0.110570942658172
-0.025647503127501 -0.007174700702061 0.114204112190400
0.042926362318723 -0.001797793896814 0.116646044087642
-0.015001623401519 -0.037938838670284 0.162095864393531
-0.030340474956879 0.008950748469506 0.157370976484120
-0.024891614202397 -0.027381232024732 0.105207789028587
0.011604467614664 -0.011538087563059 0.193120138460825
-0.002671115109727 0.008298638274767 0.172866168167827
-0.014834049293700 -0.024819387752769 0.173784165379759
0.033082862789629 -0.020955933572302 0.106340450069282
0.008526409115272 0.011709088439322 0.186044056303823
0.004972360829114 -0.023471909018997 0.193440511896121
0.041719366382981 0.032437626668884 0.198439831224097
-0.021416098117963 0.048266339972195 0.185893881668387
0.025720022911072 0.023024879226760 0.178555898926503
0.025372909427850 -0.015612299588502 0.151337741858758
-0.011955415302464 0.008406933327845 0.117760246050587
0.006782164072522 -0.039223098475626 0.139858949673584
-0.042414571043694 0.040630815064973 0.113393125098797
-0.044604988133339 0.037965372448190 0.103088954874495
0.003079755300897 0.031776055937064 0.193914170606955
0.027916723010201 -0.023927200094454 0.130130606458639
0.043401068422918 0.009435625066433 0.129553383447536
-0.037009379152627 -0.047748740725977 0.133293628183618
0.006882366087219 -0.007474067978587 0.146706818702885
-0.003060935894179 -0.018728111317938 0.164819840646616
-0.048809793049876 -0.033851525568825 0.102522818149304
-0.016287735560112 -0.032123381324763 0.184220661241933
-0.033781769180676 -0.007711431089992 0.155903254498870
0.029428454068391 -0.040577066111227 0.185409994927344
-0.018878495795520 0.009852366875674 0.134787919432726
0.002853313550621 -0.002907574364167 0.144602664805510
-0.033435127050022 0.019594931330161 0.105423948444113
0.010198194140164 0.019988784992829 0.117710753378911
-0.023702871545986 0.013853075827184 0.166280806196097
0.015407909847678 -0.046639616393357 0.133082899520330
0.018921450314001 -0.043119390088195 0.189848613783430
0.024815159282371 -0.018040026481950 0.111815519844671
-0.004945840149750 0.003086428069413 0.198841792878498
-0.041617862200307 0.015444570775707 0.153998209903793
-0.027102303128318 -0.009238080295885 0.170691741932276
0.041333736150167 0.031998122278194 0.199949162009770
-0.034762198103078 0.021835894320588 0.128784934481514
0.032581697748955 0.046864933023109 0.141452253889311
0.003834243526006 0.003133390656567 0.146483994162514
0.049613471662689 -0.017485431817944 0.176395707849196
-0.042182447124682 -0.039437079667098 0.181820403890767
-0.005732173022455 0.011095865874620 0.110022154019549
-0.039334722981942 0.027880224182409 0.117811695388677
0.046189808085505 -0.007654708103726 0.135963491348208
-0.049536577586593 -0.040917671421256 0.105670468906829
0.027491046471150 -0.023352850922093 0.152188567366128
0.031730322065343 -0.034634328240869 0.133584897467692
0.036869470536351 -0.021899469746613 0.117566902967566
-0.041556415448909 -0.005991486099828 0.120894667399314
-0.010021735090110 0.002714274176065 0.190515355900446
-0.024012959714935 -0.004257563431233 0.167539117733625
0.030006848022431 0.037537159860418 0.146846819990400
-0.006858617253646 0.001805210836110 0.191213247423962
0.041064759442952 0.044362262454839 0.110401157477938
-0.031815297169715 0.013770909807217 0.174554607370172
-0.023619708347801 0.045769393984158 0.173626745559664
-0.035446101961528 -0.025929296451984 0.156186142528164
-0.036393144129134 0.017612230386375 0.118419409751553
0.036929220764009 -0.021093542832552 0.159721135033785
0.007970458736557 0.017180816541422 0.129993699008979
0.004986020183633 0.019514049955174 0.113412293282868
-0.035504520177627 -0.043200723152999 0.121260153335884
0.035303111772189 -0.024520984340299 0.189494167544081
0.012205513148507 -0.027595996917578 0.107145281278704
-0.014904761910773 0.016783272701372 0.124248655893672
0.001324953986705 0.034439215652720 0.105375439220871
-0.009819196624806 -0.015553758869896 0.144172205706442
-0.042403330830916 0.028051965273136 0.101328320046725
-0.026008384644634 0.017533206574700 0.189719135097357
-0.037668106516483 -0.049328468568152 0.119665819136763
-0.031609221171758 0.010217048758180 0.109337051675509
-0.026004747433510 -0.011322880547902 0.130736689958792
-0.008273293091563 0.041599124413143 0.145605766684374
-0.045034556967426 -0.049884894287089 0.110166939362476
0.040271610991528 -0.003755084075767 0.199538972765509
0.044478718972165 -0.007565096018462 0.133209283345250
-0.000913590753192 -0.003908363397104 0.129734681588792
-0.001074736159998 0.027015972860861 0.106204522131963
-0.016228059017862 -0.017752819281322 0.129824397188776
0.040005384641766 0.028473929476074 0.104635126489818
-0.013075321887978 -0.002864284628939 0.150542814245770
-0.038879724470621 -0.046423726673088 0.176142588669011
0.028025206832114 -0.032412558431647 0.163106999921359
-0.011026116303875 0.022175803339110 0.108989165077609
-0.025830871408617 -0.002651400703468 0.108086242313031
-0.009608785441189 -0.034727879956177 0.177724053654894
-0.040354547483161 -0.015887539295089 0.190513474422357
-0.036802670739366 0.010738921376835 0.153377195176700
0.044205059077549 -0.030825474453820 0.110915421204246
0.045613454022980 0.023842683997694 0.182580885785560
0.007520859507847 -0.025715040168183 0.133809771880217
-0.044022045705284 0.041742434204938 0.129397305302648
-0.026522008662759 -0.023093841331398 0.174631342770368
-0.014684142877793 0.026550001662144 0.101033661834340
0.032119404019796 -0.031133802320851 0.104844733925322
-0.048459656234844 -0.021250182693387 0.166791612157362
-0.045697619834219 -0.040888653631347 0.160346798383077
-0.033100997053730 0.007620938066301 0.152610246579556
0.014911547495645 0.018336324329465 0.172970944822323
0.023172238565867 0.004659311459032 0.170725348531542
0.014774596313631 -0.007427115812881 0.178137705179928
-0.004907629356906 0.014444278143134 0.128797697561417
0.004700889228634 0.014761763017268 0.169253198638652
-0.020367919439223 0.017901675409320 0.155666983496401
0.024469280707416 0.013578671051408 0.139652079258159
-0.031104498496746 0.044517411310940 0.106159066705396
0.018677543336532 -0.029106507757398 0.178017553149117
-0.031648884426273 0.020928170271054 0.133758386405205
-0.013151540350966 -0.026376942300620 0.160786590726295
0.012561856072969 -0.038060375220269 0.174125404950222
0.028022743515138 0.010730394068563 0.110481324197350
-0.041887423113421 -0.004986230303410 0.112788837978300
0.042938597096873 -0.004127450635113 0.154954010701520
0.027571267860840 0.016194475190565 0.148522940858496
-0.001320836759683 0.027028551480366 0.189047567918444
-0.006414141141908 -0.014978198655890 0.179896027881288
-0.005321625057019 0.016200959835913 0.173434108369597
-0.019365052798344 -0.008384141003020 0.105133188611237
0.000850865538113 0.034192915269131 0.107288529909898
0.001077156417211 0.033291681907522 0.108852745967472
0.031762770832226 -0.024355900777085 0.179835086411395
0.029483141688345 0.011346073681288 0.194300813957070
0.014431813019369 0.008224916452723 0.168371557240836
-0.012139061733973 0.004073933712441 0.113208295571356
0.031158045828248 0.036994103235801 0.172272453965677
0.003282558879945 -0.023522097352437 0.111035348064235
-0.014927289642312 -0.018192592451894 0.111749285215183
0.043900156199989 -0.038078545894581 0.164071792296593
0.037594281149298 0.043982947034492 0.132881421475680
0.005015634289842 0.014555187497252 0.165381202259577
0.012247508600123 -0.002053677505111 0.174913146310352
0.008704470453142 0.013931696104011 0.158318573145488
-0.029225770726697 0.004471611052676 0.174003232798778
-0.019875366972051 0.014731148029313 0.123482691474790
-0.002907665148241 0.004388593399964 0.173495754169605
-0.026951183978844 0.022104662057981 0.197059852508661
0.034430879269539 0.002249530577710 0.186693029175192
-0.030523571043295 0.049370462412085 0.108623452986350
-0.027407821902760 -0.028132336760037 0.136643661631920
-0.032929195285214 -0.039420172674977 0.136919880433002
-0.027233570218345 -0.039030253547681 0.168502847266161
-0.006430131589610 -0.043640862902489 0.159794163538389
-0.018889771334959 -0.009542000414237 0.178936394364191
0.042337964210324 -0.005162708793350 0.136765291843788
-0.006979260867042 -0.013418382316183 0.120602785950519
-0.031518367987586 0.026350464084881 0.108666654739553
0.040488096867989 0.012789637961417 0.177193391709911
0.047974837835609 0.027198038555425 0.120567452146476
-0.006113002687390 0.043285357027882 0.138827163104780
-0.038888077655940 0.047274085400301 0.155177853195723
-0.024193530408793 -0.030797165057223 0.122895325202310
-0.009128015388745 -0.036112579717084 0.164194062039919
0.009489607400861 0.019626633708299 0.148448037239818
-0.023778825221915 -0.040617997322513 0.115184552511627
0.010284308938208 0.002540440385934 0.178193196658800
0.021121578043368 0.003034421839286 0.110060632236242
-0.027825326598276 0.036113981139333 0.129406633375863
-0.038258234914419 -0.001514666644790 0.123737301970558
-0.020332412678167 -0.010654363878473 0.153087225702793
-0.018122169807412 0.017143113967403 0.109149873133941
-0.007583324028619 0.024125794345421 0.140531541988059
0.000785828466112 0.002005246739039 0.110484624711576
-0.041448420290996 -0.015228732872247 0.111228396215603
-0.023751776530167 -0.035000274616832 0.178442789074391
0.030101462276974 0.008609206723146 0.129157031790693
-0.047077972243785 -0.023785468227219 0.160353343875089
0.042885413947804 -0.045554590772176 0.196442266721590
0.023033086285545 0.025493326723118 0.143248499397036
-0.001139102619642 -0.025721464217904 0.169475219461794
0.007852506102344 -0.005759768699806 0.175809927528945
-0.026271642022848 0.018779608512011 0.143264232614710
-0.004115117182007 -0.014077178959814 0.165549803980354
0.046308853928691 0.023634007430120 0.110975505072305
0.004680571873897 -0.010529252472124 0.193375984838533
0.002113583080400 0.018341586696798 0.118746080642169
-0.026840561329148 0.020404743033427 0.126617883890764
-0.001110225607983 -0.005769458661663 0.179783026021160
0.012406008817369 -0.048042237644668 0.148760377543392
0.017913554086575 -0.016914211978593 0.176895826405887
-0.010448478433141 -0.007569050316686 0.139600674521788
-0.013256335145552 -0.022972957656793 0.127293879412369
0.048798200316163 -0.030294620190454 0.103723463407033
-0.046226113376045 0.032172118496131 0.167329491410865
0.038516800820248 -0.007007859061673 0.142956445925185
0.041328682763924 0.038777095425635 0.145173923490474
0.029618387358521 -0.010881700453884 0.160985716929022
-0.040128772134443 0.026911438738830 0.105940329685828
-0.023812881612928 -0.010320848298638 0.131581143833887
-0.016464316003720 0.030851409588735 0.177272213086293
0.017972795137734 0.025507709900708 0.169643298900609
-0.036344686264463 -0.012260445516490 0.112533218110918
0.022122749858174 -0.028398108403861 0.113015145038942
-0.039323813839276 0.029040721796691 0.109235233871920
0.015375734866856 0.044930391184980 0.100782029356933
-0.000582606336073 -0.017243456592479 0.142310938516417
0.027905172323128 0.017126437045174 0.165557317493791
0.021503707840069 -0.006135501741304 0.172292252469202
0.040372056055632 0.033350059558898 0.153120929358244
0.039092250433079 0.026885425242961 0.110881793827305
-0.016583694726250 -0.033274645450528 0.163176637352849
0.019874583233479 0.036198047870207 0.112649986532930
-0.030219017331407 0.048987215363150 0.113430330431357
-0.046945905369536 0.001442345650570 0.109859409271100
0.024407426036746 0.038428102312696 0.114202724843193
0.000002243559020 0.008802605530850 0.116825129849153
-0.002007785885394 -0.034524765134396 0.119624892225696
0.040472223806736 -0.030013717714255 0.131747977514944
0.010986664842256 -0.009304516286109 0.131642899914629
0.011766638958845 0.024870571821569 0.121756330942282
0.035944230564621 0.032558381578616 0.125104184601574
0.030548942452969 0.028996302994453 0.189292240528598
0.007672151561469 -0.018147575460101 0.170322322455629
-0.031707753058509 0.003406412737073 0.155573794271939
-0.026006798943128 -0.041004932122942 0.118443366775765
0.038651193307610 -0.038829425580680 0.121203084253232
-0.047132584753589 -0.036370745106170 0.107734680811268
-0.001009861148778 0.017865230480019 0.191380041077957
-0.033207285431774 -0.000482298091034 0.170671521769693
0.047868064964116 -0.031028959398242 0.155778896675488
0.021269447167891 -0.000499417500978 0.131342898993659
0.000047162415484 -0.035239177802331 0.116620356290215
-0.002891162545806 -0.044502585309381 0.162249725927990
